# 3D point list with one line of data per point:
#   POINT3D_ID, X, Y, Z, R, G, B, ERROR, TRACK[] as (IMAGE_ID, POINT2D_IDX)
# Number of points: 485, mean track length: 4.43
971 0.19966821372509003 -0.08004921674728394 -0.126897394657135 60 65 69 2.1 2 0 3 0 4 0 5 0 17 0 
972 0.1606689691543579 -0.10693129897117615 -0.07746753096580505 9 15 27 1.17 2 0 3 0 4 0 
973 0.20517870783805847 -0.08930795639753342 -0.13451910018920898 192 199 203 1.39 2 0 3 0 4 0 5 0 
974 0.2011004537343979 -0.10739684104919434 -0.12939181923866272 11 15 27 0.92 2 0 3 0 4 0 
975 0.1774301528930664 -0.10610902309417725 -0.09886743128299713 11 16 30 1.11 2 0 3 0 4 0 
976 0.9348165392875671 1.5487595796585083 5.2750725746154785 223 225 224 29.5 3 0 6 0 7 0 8 0 20 0 21 0 
977 0.13030384480953217 -0.1365453451871872 -0.04144362732768059 221 222 220 1.9 3 0 4 0 5 0 6 0 
978 0.5475298762321472 1.4832862615585327 5.308127403259277 162 150 135 29.68 3 0 20 0 21 0 
979 0.7598279118537903 1.5162323713302612 5.269773960113525 253 254 254 49.14 3 0 6 0 7 0 8 0 20 0 
980 1.2807395458221436 1.2896171808242798 6.033308506011963 18 18 20 13.84 3 0 6 0 7 0 8 0 20 0 21 0 
981 0.8653621077537537 1.5332077741622925 5.251913070678711 48 44 47 47.28 3 0 6 0 7 0 8 0 
982 0.1136658564209938 -0.1355847418308258 -0.025441974401474 172 163 159 1.98 3 0 4 0 5 0 6 0 
983 0.12719711661338806 -0.1356281340122223 -0.03859798237681389 83 45 33 0.72 3 0 4 0 5 0 
984 0.13220901787281036 -0.13556146621704102 -0.04311678931117058 238 238 229 2.47 4 0 5 0 6 0 
985 1.985597014427185 1.0147340297698975 2.2360808849334717 69 69 65 20.1 3 0 6 0 8 0 9 0 21 0 22 0 23 0 29 0 30 0 
986 1.0352624654769897 1.2651373147964478 6.0872602462768555 56 43 73 28.04 3 0 6 0 7 0 8 0 21 0 
987 5.819258213043213 1.3721400499343872 2.523815870285034 172 173 175 0.63 3 0 4 0 5 0 6 0 16 0 
988 0.131894052028656 -0.13497216999530792 -0.04295254498720169 49 35 36 1.98 3 0 4 0 5 0 6 0 
989 0.142807736992836 -0.13427579402923584 -0.051548704504966736 206 196 173 0.19 3 0 4 0 5 0 
990 6.315769672393799 1.4257632493972778 2.398914098739624 7 7 17 5.67 3 0 10 0 11 0 
991 0.1509454995393753 -0.13454799354076385 -0.05712544918060303 186 180 165 0.32 3 0 4 0 5 0 
992 0.48082077503204346 1.4893605709075928 5.315575122833252 209 201 182 46.5 3 0 16 0 20 0 21 0 
993 0.09970103949308395 -0.1332687884569168 -0.008485653437674046 157 151 133 4.04 3 0 4 0 5 0 6 0 
994 1.1913611888885498 1.3029205799102783 6.045539379119873 202 206 206 17.06 3 0 6 0 7 0 8 0 20 0 21 0 
995 1.2097408771514893 1.307078242301941 6.048367977142334 41 31 57 16.45 3 0 6 0 7 0 8 0 20 0 21 0 
996 0.15403863787651062 -0.13304883241653442 -0.061196960508823395 86 52 28 0.36 3 0 4 0 5 0 
997 0.5056618452072144 1.498655915260315 5.304459095001221 113 99 81 33.22 3 0 20 0 21 0 
998 0.6440274119377136 1.2876877784729004 6.3457722663879395 83 69 57 23.1 3 0 20 0 21 0 
999 0.13471809029579163 -0.13185220956802368 -0.0473644845187664 67 41 27 0.34 3 0 4 0 5 0 
1000 0.7622721791267395 1.529556393623352 5.211363792419434 32 22 51 18.26 3 0 20 0 21 0 
1001 0.13417918980121613 -0.13170970976352692 -0.046986259520053864 68 38 24 0.56 3 0 4 0 5 0 
1002 0.1321200430393219 -0.13162334263324738 -0.04527655988931656 63 41 23 0.36 3 0 4 0 5 0 
1003 0.7627898454666138 1.5300252437591553 5.214083194732666 39 31 50 43.32 3 0 6 0 7 0 8 0 20 0 21 0 
1004 0.13900154829025269 -0.13180522620677948 -0.05084967985749245 226 223 209 0.29 3 0 4 0 5 0 
1005 5.872971534729004 1.3400611877441406 2.1459267139434814 191 191 192 1.42 3 0 6 0 16 0 
1006 5.474941253662109 1.3875980377197266 0.45710301399230957 189 148 69 66.48 3 0 6 0 16 0 
1007 5.819912433624268 1.4131041765213013 2.537494659423828 52 52 65 0.57 3 0 5 0 6 0 16 0 
1008 5.082057476043701 1.412205457687378 0.9511290788650513 19 24 54 18.44 3 0 6 0 16 0 
1009 10.583932876586914 1.3495489358901978 4.152597904205322 238 239 240 5.49 3 0 10 0 11 0 
1010 0.13206468522548676 -0.13042066991329193 -0.04521331191062927 62 33 17 0.45 3 0 4 0 5 0 
1011 1.9803657531738281 1.0384665727615356 2.2436869144439697 210 207 204 21.51 3 0 6 0 8 0 9 0 21 0 22 0 23 0 29 0 30 0 
1012 0.09661681950092316 -0.13051527738571167 -0.007308654487133026 168 169 170 4.51 3 0 4 0 5 0 6 0 
1013 1.9650322198867798 1.0382587909698486 2.2494781017303467 211 169 159 23.6 0 0 3 0 6 0 7 0 8 0 9 0 21 0 22 0 23 0 29 0 30 0 
1014 2.675405263900757 0.5154949426651001 0.5282658934593201 7 0 4 12.99 3 0 6 0 7 0 
1015 1.2393038272857666 1.3313318490982056 5.98185396194458 176 179 195 5.92 3 0 20 0 21 0 
1016 5.894267559051514 1.3599607944488525 2.102973461151123 189 189 189 2.03 3 0 6 0 7 0 16 0 
1017 5.6075029373168945 1.485672116279602 0.7051263451576233 8 6 10 40.65 3 0 6 0 16 0 
1018 5.358760833740234 1.3984293937683105 0.5831649899482727 157 135 59 55.99 3 0 6 0 7 0 8 0 
1019 0.08755582571029663 -0.12969309091567993 0.003653883934020996 68 37 38 11.1 3 0 4 0 5 0 
1020 5.7202324867248535 1.3846665620803833 2.1927530765533447 69 67 76 3.69 3 0 5 0 10 0 11 0 16 0 
1021 0.12600190937519073 -0.1284915655851364 -0.041135888546705246 219 213 193 2.12 3 0 4 0 5 0 6 0 
1022 0.11881285160779953 -0.128247931599617 -0.03318500146269798 165 141 110 8.43 3 0 4 0 5 0 6 0 16 0 
1023 0.10853235423564911 -0.1279640644788742 -0.023099105805158615 189 184 165 1.99 3 0 4 0 5 0 6 0 
1024 0.10943636298179626 -0.12789127230644226 -0.02411564439535141 173 172 154 13.41 3 0 4 0 5 0 16 0 
1025 0.12501324713230133 -0.12788298726081848 -0.03940156474709511 12 6 2 7.06 3 0 4 0 5 0 6 0 16 0 
1026 5.376262664794922 1.419083595275879 0.5736527442932129 19 11 17 50.65 3 0 6 0 16 0 
1027 5.695583343505859 1.4032566547393799 2.1910336017608643 53 51 59 3.82 3 0 5 0 10 0 11 0 16 0 
1028 5.795165061950684 1.389402151107788 2.036754608154297 194 194 195 1.47 3 0 6 0 16 0 17 0 18 0 
1029 0.09710196405649185 -0.12771987915039062 -0.009185340255498886 11 2 9 21.08 3 0 4 0 5 0 16 0 
1030 5.814621925354004 1.3947780132293701 2.0435054302215576 188 188 189 2.61 3 0 6 0 7 0 
1031 0.10025126487016678 -0.12761834263801575 -0.013163264840841293 156 149 147 4.26 3 0 4 0 5 0 
1032 0.11431218683719635 -0.12751847505569458 -0.028596028685569763 20 5 1 1.41 3 0 4 0 5 0 
1033 5.738262176513672 1.385581135749817 2.055999994277954 186 186 185 2.12 3 0 6 0 7 0 16 0 
1034 0.5947602987289429 1.5267294645309448 5.1689453125 240 240 239 54.75 3 0 6 0 7 0 20 0 
1035 0.8058755397796631 1.542170763015747 5.060682773590088 137 129 114 43.36 3 0 6 0 7 0 8 0 20 0 
1036 0.1226019486784935 -0.12718632817268372 -0.03687738627195358 186 185 162 1.44 3 0 4 0 5 0 6 0 
1037 5.31460428237915 1.4221564531326294 0.6001375317573547 13 2 3 38.47 3 0 6 0 16 0 19 0 
1038 0.1624230146408081 -0.12828680872917175 -0.06630125641822815 228 217 205 0.28 3 0 4 0 5 0 
1039 0.11460502445697784 -0.1269446164369583 -0.028916791081428528 174 152 117 10.93 3 0 4 0 5 0 16 0 
1040 5.393489360809326 1.4654977321624756 0.6653727293014526 101 82 72 34.45 3 0 6 0 16 0 19 0 
1041 0.11977687478065491 -0.12652447819709778 -0.03418436273932457 9 7 8 0.97 3 0 4 0 5 0 
1042 5.682277202606201 1.3980960845947266 2.051992416381836 164 160 160 1.65 3 0 6 0 16 0 
1043 2.237082004547119 0.8096858859062195 2.1148111820220947 213 210 201 6.5 3 0 6 0 7 0 8 0 9 0 10 0 19 0 20 0 21 0 22 0 23 0 29 0 30 0 
1044 5.998802661895752 1.4298591613769531 1.919623613357544 10 2 6 2.82 3 0 6 0 16 0 
1045 0.17453457415103912 -0.12832880020141602 -0.07251445204019547 205 177 131 0.35 3 0 4 0 5 0 
1046 0.6126294732093811 1.5372569561004639 5.104111671447754 182 173 154 26.3 3 0 20 0 21 0 
1047 5.956235408782959 1.4239966869354248 1.9268771409988403 224 220 214 2.7 3 0 6 0 16 0 
1048 0.12452034652233124 -0.1257518231868744 -0.03656480461359024 201 178 129 6.65 3 0 4 0 5 0 6 0 16 0 
1049 0.08319079875946045 -0.12655220925807953 0.01368109229952097 127 124 121 13.2 3 0 4 0 5 0 6 0 7 0 
1050 0.12321681529283524 -0.1253942847251892 -0.03520907089114189 6 3 6 0.69 3 0 4 0 5 0 
1051 0.09243791550397873 -0.12568892538547516 0.001610754057765007 56 55 66 8.09 3 0 4 0 5 0 
1052 0.5485597848892212 1.341977834701538 6.095014572143555 142 133 121 28.43 3 0 20 0 21 0 
1053 0.10781063139438629 -0.12489023059606552 -0.01919127255678177 95 50 39 16.25 3 0 6 0 16 0 
1054 6.051576137542725 1.448952555656433 1.8502429723739624 122 112 102 3.46 3 0 6 0 16 0 
1055 5.802750587463379 1.427741289138794 1.954351544380188 39 33 49 2.31 3 0 6 0 16 0 
1056 0.5148066282272339 1.5431181192398071 5.11730432510376 114 103 104 44.43 3 0 16 0 20 0 21 0 
1057 5.719788551330566 1.4446381330490112 2.0604348182678223 13 7 4 2.21 3 0 6 0 7 0 16 0 
1058 0.13094930350780487 -0.12404882162809372 -0.042270727455616 197 187 163 1.52 3 0 4 0 5 0 6 0 
1059 5.655642509460449 1.4337512254714966 2.007223606109619 158 143 128 2.38 3 0 6 0 7 0 16 0 
1060 5.762813091278076 1.4369690418243408 1.9100010395050049 232 224 219 2.53 3 0 6 0 16 0 
1061 0.1676975041627884 -0.12446136772632599 -0.06725510954856873 244 241 217 0.17 3 0 4 0 5 0 
1062 2.2202470302581787 0.8420190811157227 2.1342759132385254 173 48 69 0.9 3 0 6 0 7 0 8 0 9 0 19 0 20 0 21 0 22 0 29 0 
1063 0.11352836340665817 -0.12265418469905853 -0.025236094370484352 170 169 154 10.12 3 0 4 0 5 0 16 0 
1064 0.0809379518032074 -0.12372934818267822 0.021475452929735184 148 148 140 20.52 3 0 4 0 5 0 6 0 7 0 8 0 9 0 
1065 1.1821136474609375 1.4127657413482666 5.725097179412842 54 47 85 16.86 3 0 6 0 7 0 8 0 20 0 21 0 
1066 0.11206335574388504 -0.12199589610099792 -0.02370544895529747 181 179 162 1.48 3 0 4 0 5 0 6 0 
1067 2.1973812580108643 0.8433159589767456 2.1355676651000977 62 48 77 8.84 3 0 6 0 8 0 9 0 10 0 19 0 20 0 21 0 22 0 23 0 29 0 30 0 
1068 5.405457019805908 1.4869784116744995 0.5328422784805298 231 229 221 50.93 3 0 4 0 6 0 7 0 16 0 19 0 
1069 0.4920940697193146 1.3848596811294556 6.10188102722168 137 121 107 32.94 3 0 20 0 21 0 
1070 0.11368393152952194 -0.12122701108455658 -0.023589441552758217 164 149 119 1.39 3 0 4 0 5 0 6 0 
1071 0.12147452682256699 -0.12121326476335526 -0.03165166452527046 198 189 164 6.22 3 0 4 0 5 0 6 0 16 0 
1072 0.10095251351594925 -0.12125115841627121 -0.008361310698091984 135 117 100 21.82 3 0 4 0 5 0 6 0 7 0 16 0 
1073 5.278618812561035 1.4635180234909058 0.5365591049194336 28 0 60 48.98 3 0 4 0 6 0 7 0 16 0 19 0 
1074 2.708618640899658 0.9379308223724365 1.0034338235855103 118 102 98 1.32 3 0 5 0 16 0 
1075 5.74688196182251 1.4549239873886108 1.9055358171463013 83 51 36 2.58 3 0 6 0 16 0 
1076 0.8922276496887207 1.3775887489318848 5.734734058380127 31 33 30 12.8 3 0 20 0 21 0 
1077 0.09397761523723602 -0.1205599308013916 0.0016336314147338271 160 153 137 11.78 3 0 4 0 5 0 6 0 7 0 
1078 0.1292574256658554 -0.12024304270744324 -0.03730490058660507 201 197 187 1.22 3 0 4 0 5 0 6 0 
1079 0.13670790195465088 -0.12041414529085159 -0.04357277229428291 216 208 200 1.64 3 0 4 0 5 0 6 0 
1080 0.12804417312145233 -0.12007201462984085 -0.03626454621553421 206 202 196 1.09 3 0 4 0 5 0 6 0 
1081 0.0871044397354126 -0.12024027854204178 0.012536920607089996 156 152 143 11.02 3 0 4 0 5 0 6 0 7 0 
1082 0.10542458295822144 -0.1196480244398117 -0.012156951241195202 39 30 19 2.93 3 0 4 0 5 0 
1083 0.4489903748035431 1.3953441381454468 6.115383148193359 41 38 41 36.38 3 0 20 0 21 0 
1084 0.08350206166505814 -0.12018706649541855 0.01881159283220768 61 61 63 11.94 3 0 4 0 5 0 6 0 7 0 
1085 0.09866239130496979 -0.11949976533651352 -0.0028430891688913107 33 24 19 3.9 3 0 4 0 5 0 6 0 
1086 0.12329263240098953 -0.11933405697345734 -0.03171078488230705 188 187 185 0.87 3 0 4 0 5 0 
1087 0.10903218388557434 -0.1361515074968338 -0.020300738513469696 177 177 178 2.94 3 0 4 0 5 0 
1088 0.1465381383895874 -0.11906904727220535 -0.05091164633631706 235 237 222 0.32 3 0 4 0 5 0 
1089 0.176023468375206 -0.12041015177965164 -0.06839808821678162 244 245 234 0.7 3 0 4 0 5 0 
1090 6.6318535804748535 1.4079715013504028 0.6910616755485535 55 68 89 42.12 3 0 4 0 6 0 7 0 8 0 16 0 
1091 5.252885341644287 1.482151985168457 0.5501187443733215 96 81 75 75.17 3 0 6 0 7 0 
1092 0.0892728939652443 -0.11906789988279343 0.011410839855670929 44 38 37 10.51 3 0 4 0 5 0 6 0 7 0 
1093 0.09014122933149338 -0.11904019862413406 0.010088973678648472 40 32 27 10.35 3 0 4 0 5 0 6 0 7 0 
1094 0.09273180365562439 -0.11855700612068176 0.00607746746391058 142 140 140 8.07 3 0 4 0 5 0 
1095 5.605755805969238 1.4303585290908813 1.7566843032836914 113 98 80 3.32 3 0 6 0 16 0 
1096 0.09153788536787033 -0.11845773458480835 0.007891933433711529 168 157 137 10.68 3 0 4 0 5 0 6 0 7 0 9 0 
1097 0.14987346529960632 -0.11835451424121857 -0.053310029208660126 216 179 151 0.3 3 0 4 0 5 0 
1098 0.46307507157325745 1.41233229637146 6.058530330657959 33 30 31 35.54 3 0 20 0 21 0 
1099 1.0713578462600708 1.4335073232650757 5.678946495056152 225 227 231 21.7 3 0 6 0 7 0 8 0 20 0 21 0 
1100 0.10736016184091568 -0.13440991938114166 -0.019034169614315033 167 168 167 3.02 3 0 4 0 5 0 
1101 0.911782443523407 1.4165476560592651 5.673323631286621 206 207 206 22.73 3 0 6 0 7 0 20 0 21 0 
1102 0.5365023016929626 1.3614658117294312 5.651771068572998 197 199 208 28.48 3 0 20 0 21 0 
1103 0.0892559289932251 -0.10801509767770767 0.017371324822306633 64 61 65 19.63 3 0 4 0 5 0 7 0 16 0 
1104 0.09654496610164642 -0.10727569460868835 0.007621799595654011 65 69 75 14.83 3 0 4 0 5 0 16 0 
1105 0.0933694913983345 -0.106733538210392 0.012012215331196785 70 72 79 21.67 3 0 4 0 7 0 16 0 
1106 0.08590413630008698 -0.1064772680401802 0.021699948236346245 55 56 61 21.39 3 0 4 0 5 0 7 0 16 0 
1107 0.08650284260511398 -0.1061726063489914 0.020993737503886223 58 59 63 24.59 3 0 4 0 5 0 7 0 8 0 9 0 16 0 
1108 0.0722956582903862 -0.10502422600984573 0.039398156106472015 8 8 19 9.94 3 0 5 0 6 0 7 0 8 0 
1109 0.07439164817333221 -0.10494695603847504 0.036635611206293106 3 4 15 7.66 3 0 6 0 9 0 
1110 0.08163768798112869 -0.1226041316986084 0.020092226564884186 141 139 130 27.13 3 0 4 0 5 0 7 0 8 0 
1111 0.07701161503791809 -0.10463499277830124 0.03324805572628975 63 69 78 18.1 3 0 7 0 8 0 
1112 0.07321452349424362 -0.10442917048931122 0.038204047828912735 65 71 79 7.86 3 0 6 0 9 0 
1113 0.6575796604156494 1.551796555519104 4.71504545211792 46 37 33 53.68 3 0 6 0 7 0 8 0 20 0 21 0 
1114 0.11970581114292145 -0.13222399353981018 -0.0339929424226284 60 36 32 1.12 3 0 4 0 5 0 
1115 3.8768887519836426 1.1009101867675781 1.573140025138855 13 2 5 0.92 3 0 5 0 6 0 16 0 
1116 0.09469558298587799 -0.09699877351522446 0.010144315659999847 73 89 120 38.96 3 0 4 0 7 0 17 0 
1117 0.11456125974655151 -0.13208942115306854 -0.02851487323641777 62 40 27 1.7 3 0 4 0 5 0 
1118 0.5341181755065918 1.379886269569397 5.62364387512207 175 160 141 28.93 3 0 20 0 21 0 
1119 0.11627926677465439 -0.09493860602378845 -0.018112223595380783 202 208 209 5.53 3 0 6 0 16 0 
1120 0.16100995242595673 -0.09506789594888687 -0.07643765211105347 211 213 210 12.48 6 0 16 0 17 0 18 0 
1121 0.08032246679067612 -0.09457652270793915 0.028798937797546387 201 204 205 19.84 3 0 4 0 5 0 7 0 8 0 
1122 0.11619870364665985 -0.09366338700056076 -0.01812221296131611 191 197 201 5.32 3 0 6 0 16 0 
1123 0.07794607430696487 -0.09348652511835098 0.031856369227170944 129 134 138 46.28 3 0 6 0 7 0 8 0 9 0 17 0 19 0 
1124 0.585074782371521 1.5073362588882446 4.5598626136779785 190 172 152 68.51 3 0 6 0 7 0 
1125 0.16038942337036133 -0.09318577498197556 -0.07580584287643433 6 12 22 4.24 3 0 16 0 17 0 18 0 
1126 0.07843910902738571 -0.09272098541259766 0.031237447634339333 164 171 171 23.31 3 0 4 0 6 0 7 0 8 0 9 0 16 0 
1127 0.15159690380096436 -0.09302589297294617 -0.06424111127853394 31 27 68 6.68 3 0 6 0 16 0 
1128 0.13905559480190277 -0.09274476021528244 -0.04788358137011528 65 67 113 4.74 3 0 5 0 16 0 17 0 18 0 
1129 0.16688339412212372 -0.09299080818891525 -0.0842035710811615 177 189 197 5.7 16 0 17 0 18 0 
1130 0.18437136709690094 -0.09188355505466461 -0.10684020072221756 34 38 42 0.98 3 0 4 0 5 0 16 0 
1131 0.5788767337799072 1.400085210800171 5.5824127197265625 22 2 56 26.34 3 0 20 0 21 0 
1132 0.09313768893480301 -0.09068308770656586 0.012090306729078293 196 194 200 7.14 3 0 4 0 6 0 
1133 0.06836844980716705 -0.08981890976428986 0.044192370027303696 161 163 170 35.32 3 0 5 0 16 0 
1134 0.09280429035425186 -0.08967919647693634 0.012468147091567516 194 197 198 5.01 3 0 6 0 9 0 
1135 0.11877712607383728 -0.08960434794425964 -0.021455474197864532 133 142 154 6.93 3 0 4 0 5 0 6 0 16 0 17 0 18 0 
1136 0.09488065540790558 -0.08884404599666595 0.009730909951031208 60 88 121 12.57 3 0 4 0 7 0 
1137 0.1527993083000183 -0.08929504454135895 -0.06570648401975632 73 80 85 6.83 3 0 6 0 16 0 
1138 3.7977981567382812 1.1010618209838867 1.4839527606964111 14 4 3 1.02 3 0 5 0 16 0 
1139 0.6523805856704712 1.406306266784668 5.481431484222412 182 188 197 57.87 3 0 6 0 7 0 
1140 3.1371779441833496 1.308813214302063 7.262417793273926 202 174 144 0.8 3 0 7 0 8 0 
1141 0.06570550799369812 -0.08707526326179504 0.047689616680145264 192 197 200 7.56 3 0 5 0 6 0 7 0 8 0 9 0 19 0 
1142 0.6662059426307678 1.543837308883667 4.544297218322754 210 211 180 60.04 3 0 6 0 7 0 8 0 21 0 
1143 0.153879776597023 -0.08679662644863129 -0.06719356775283813 113 115 117 0.5 3 0 4 0 5 0 
1144 4.7941460609436035 1.411422610282898 0.38456064462661743 44 33 30 75.34 3 0 6 0 16 0 
1145 0.6745742559432983 1.5481107234954834 4.51649808883667 184 167 146 50.08 3 0 6 0 7 0 8 0 20 0 21 0 
1146 0.1656869351863861 -0.08494488149881363 -0.08276208490133286 139 148 151 0.41 3 0 4 0 5 0 
1147 0.28511756658554077 1.4525718688964844 5.8773627281188965 164 155 134 53.54 3 0 20 0 21 0 
1148 0.6533227562904358 1.4137818813323975 5.456240653991699 232 235 240 39.78 3 0 6 0 7 0 20 0 21 0 
1149 0.1347842663526535 -0.12000316381454468 -0.042167771607637405 213 201 193 1.47 3 0 4 0 5 0 6 0 
1150 4.753807067871094 1.4058468341827393 0.35536763072013855 56 36 33 80.79 3 0 6 0 16 0 
1151 1.1816961765289307 1.5071053504943848 5.427116870880127 67 57 90 16.56 3 0 6 0 7 0 8 0 20 0 21 0 
1152 0.13686370849609375 -0.08391638845205307 -0.04513118788599968 197 205 211 2.94 3 0 4 0 5 0 6 0 16 0 17 0 
1153 0.09148905426263809 -0.08146162331104279 0.013778016902506351 54 49 92 12.15 3 0 6 0 16 0 
1154 0.16523490846157074 -0.08210853487253189 -0.08220572769641876 167 178 182 2.72 3 0 16 0 17 0 18 0 
1155 0.09482205659151077 -0.08084327727556229 0.009851843118667603 73 93 133 9.68 3 0 4 0 6 0 7 0 
1156 0.1995173692703247 -0.08127498626708984 -0.12707677483558655 115 118 120 0.87 3 0 4 0 5 0 17 0 
1157 0.940152108669281 1.4845067262649536 5.493653774261475 230 234 232 11.91 3 0 20 0 21 0 
1158 0.9308478832244873 1.5402041673660278 4.221582889556885 122 119 113 23.56 3 0 6 0 7 0 8 0 20 0 21 0 
1159 0.13396640121936798 -0.07767022401094437 -0.0414663627743721 62 63 112 2.58 3 0 6 0 16 0 
1160 0.8574739098548889 1.5462571382522583 4.280782222747803 97 81 68 26.19 3 0 6 0 7 0 20 0 
1161 0.9077762961387634 1.541273832321167 4.226743221282959 141 134 124 28.9 3 0 6 0 7 0 
1162 0.10296878963708878 -0.11903727054595947 -0.008454015478491783 95 66 49 15.47 3 0 4 0 5 0 6 0 7 0 
1163 0.6482653021812439 1.5396254062652588 4.408899784088135 180 164 140 59.51 3 0 6 0 7 0 8 0 20 0 
1164 0.1040060818195343 -0.11889080703258514 -0.00987195409834385 153 143 123 16.41 3 0 4 0 5 0 6 0 7 0 
1165 2.0416207313537598 0.9450324177742004 2.208406448364258 234 237 237 24.12 3 0 6 0 8 0 9 0 10 0 21 0 22 0 23 0 29 0 30 0 
1166 0.05692603439092636 -0.07512038946151733 0.05900346115231514 201 204 209 28.92 3 0 5 0 6 0 7 0 16 0 
1167 1.9822170734405518 0.9436582922935486 2.2420358657836914 225 225 222 16.62 3 0 6 0 7 0 8 0 9 0 21 0 22 0 23 0 29 0 30 0 
1168 1.3866498470306396 1.5501271486282349 5.306186676025391 229 232 230 4.16 3 0 20 0 21 0 
1169 0.13545092940330505 -0.07611540704965591 -0.04337955638766289 178 196 202 2.2 3 0 4 0 5 0 6 0 17 0 
1170 0.657027006149292 1.434686303138733 5.404997825622559 41 11 98 22.12 3 0 20 0 21 0 
1171 2.1297991275787354 0.9642815589904785 2.169159173965454 56 55 57 16.75 3 0 6 0 9 0 10 0 22 0 23 0 29 0 
1172 0.056099046021699905 -0.07256937026977539 0.06001174449920654 30 33 51 25.48 3 0 5 0 6 0 7 0 8 0 16 0 
1173 0.15305127203464508 -0.07443295419216156 -0.06607403606176376 57 68 124 4.79 3 0 6 0 16 0 17 0 18 0 
1174 0.114301897585392 -0.1286594271659851 -0.029293393716216087 14 6 4 1.59 3 0 4 0 5 0 6 0 
1175 0.9018882513046265 1.533003807067871 4.127689361572266 27 28 30 28.12 3 0 6 0 7 0 8 0 20 0 
1176 0.12316658347845078 -0.07319290190935135 -0.02732810191810131 51 53 62 2.87 3 0 4 0 5 0 6 0 17 0 
1177 3.322669267654419 1.0881726741790771 0.5536062121391296 70 58 52 23.21 3 0 6 0 16 0 
1178 1.034558653831482 1.529345154762268 5.440257549285889 211 214 213 23.86 3 0 6 0 7 0 8 0 20 0 21 0 
1179 2.0298590660095215 0.9619129300117493 2.220867395401001 234 234 231 26.41 3 0 6 0 8 0 9 0 10 0 21 0 22 0 23 0 29 0 30 0 
1180 0.13063524663448334 -0.07137705385684967 -0.037047747522592545 82 86 123 2.31 3 0 4 0 5 0 6 0 16 0 17 0 
1181 2.079331159591675 0.9761644005775452 2.1954386234283447 216 221 219 20.73 3 0 6 0 8 0 9 0 10 0 21 0 22 0 29 0 30 0 
1182 1.0583932399749756 1.533848762512207 5.376373291015625 218 220 224 22.79 3 0 7 0 8 0 21 0 
1183 0.5987849831581116 1.4369498491287231 5.341634273529053 193 185 158 45.45 3 0 6 0 7 0 20 0 21 0 
1184 3.9355311393737793 1.1167606115341187 1.173958659172058 18 5 2 3.88 3 0 6 0 16 0 
1185 0.10905425250530243 -0.1280035674571991 -0.023698147386312485 180 173 159 2.05 3 0 4 0 5 0 6 0 
1186 0.07525711506605148 -0.06559053808450699 0.03501684218645096 49 51 57 17.95 3 0 4 0 6 0 7 0 8 0 19 0 
1187 2.054478645324707 0.9793775677680969 2.2045650482177734 232 233 233 14.07 3 0 6 0 8 0 9 0 21 0 22 0 23 0 29 0 30 0 
1188 0.11046215891838074 -0.12808580696582794 -0.025225169956684113 172 170 160 16.27 3 0 5 0 16 0 
1189 0.8566636443138123 1.4993685483932495 5.3512163162231445 214 217 219 47.91 3 0 6 0 7 0 8 0 
1190 0.09781601279973984 -0.12814787030220032 -0.01007739920169115 14 6 11 5.27 3 0 4 0 5 0 
1191 0.11710787564516068 -0.12798357009887695 -0.03150596469640732 28 9 8 10.41 3 0 4 0 5 0 16 0 
1192 0.05546018108725548 -0.06333595514297485 0.060702838003635406 172 174 176 15.2 3 0 6 0 9 0 
1193 0.07888934761285782 -0.06415136158466339 0.030523480847477913 200 201 212 16.96 3 0 5 0 16 0 
1194 0.5880529284477234 1.4495404958724976 5.331748962402344 208 203 179 26.25 3 0 20 0 21 0 
1195 1.9424591064453125 0.9757986068725586 2.2662405967712402 52 50 49 9.87 3 0 6 0 7 0 8 0 9 0 21 0 22 0 23 0 29 0 
1196 1.4015568494796753 1.0829044580459595 6.426085948944092 131 113 94 12.73 3 0 6 0 7 0 8 0 16 0 21 0 
1197 0.11186690628528595 -0.06412696093320847 -0.01284804753959179 121 122 125 4.51 3 0 4 0 5 0 6 0 17 0 
1198 0.09854233264923096 -0.12796391546726227 -0.011119570583105087 31 21 20 5.35 3 0 4 0 5 0 
1199 2.0245163440704346 0.9918277859687805 2.2191460132598877 250 249 246 16.28 3 0 6 0 8 0 9 0 21 0 22 0 23 0 29 0 30 0 
1200 5.403041362762451 1.3269437551498413 0.5434389710426331 15 13 12 48.57 3 0 6 0 7 0 8 0 16 0 19 0 
1201 0.16295687854290009 -0.06466355919837952 -0.07910369336605072 104 104 104 0.57 3 0 5 0 16 0 
1202 0.08054465055465698 -0.06151672825217247 0.028162501752376556 48 55 58 21.49 3 0 4 0 5 0 16 0 
1203 3.569125175476074 1.1024260520935059 0.24576136469841003 140 130 124 75.35 3 0 6 0 16 0 
1204 8.109784126281738 1.4418525695800781 2.859116792678833 3 6 25 4.13 3 0 10 0 11 0 
1205 3.194981336593628 1.0818983316421509 0.5567799806594849 140 128 119 16.79 3 0 5 0 6 0 16 0 
1206 1.212438702583313 1.5547618865966797 5.157799243927002 81 70 69 17.43 3 0 6 0 7 0 8 0 21 0 
1207 0.08726123720407486 -0.060107696801424026 0.01891952194273472 134 133 133 11.21 3 0 4 0 5 0 
1208 10.40666389465332 0.9528199434280396 5.09256649017334 215 212 207 15.16 3 0 10 0 11 0 
1209 0.11950725317001343 -0.12744541466236115 -0.03398849070072174 185 169 148 1.41 3 0 4 0 5 0 6 0 
1210 0.09765245020389557 -0.10776902735233307 0.006443412974476814 17 14 22 16.73 3 0 4 0 6 0 7 0 16 0 
1211 1.083147644996643 1.550852656364441 5.228836536407471 21 9 50 8.56 3 0 20 0 21 0 
1212 8.062994956970215 0.6404361128807068 2.8534348011016846 57 60 68 3.01 3 0 10 0 11 0 
1213 1.6027110815048218 1.1461573839187622 6.287798881530762 28 20 7 9.84 3 0 6 0 7 0 8 0 
1214 1.046509861946106 1.0875300168991089 6.344499588012695 56 51 57 23.67 3 0 6 0 7 0 16 0 
1215 2.3347151279449463 0.6815294027328491 2.5820908546447754 124 121 118 5.02 3 0 6 0 8 0 9 0 19 0 21 0 22 0 23 0 29 0 
1216 1.1234815120697021 1.5466957092285156 5.164780139923096 212 214 218 21.48 3 0 6 0 7 0 8 0 21 0 
1217 5.431009769439697 1.3406883478164673 0.4914976954460144 200 154 60 58.93 3 0 6 0 16 0 
1218 0.6175568699836731 1.537762999534607 4.192496299743652 43 35 31 66.15 3 0 6 0 7 0 8 0 21 0 
1219 2.3866629600524902 0.6948783993721008 2.548802375793457 227 231 224 0.52 3 0 6 0 9 0 
1220 0.37301886081695557 1.4798283576965332 5.451625347137451 152 140 124 44.93 3 0 20 0 21 0 
1221 0.0675448328256607 -0.10497263073921204 0.04557465761899948 8 12 24 22.3 3 0 5 0 6 0 7 0 8 0 9 0 16 0 
1222 3.4903674125671387 1.1008121967315674 0.2772386968135834 17 9 5 66.77 3 0 6 0 16 0 
1223 6.9681782722473145 1.474623441696167 3.536903142929077 41 33 38 20.05 3 0 10 0 11 0 
1224 0.3460178077220917 1.501320242881775 5.544042587280273 151 138 123 48.44 3 0 20 0 21 0 
1225 0.8579584360122681 1.5278366804122925 5.26678466796875 230 230 231 14.55 3 0 20 0 21 0 
1226 0.08044616878032684 -0.05759899318218231 0.02794560417532921 110 116 119 20.8 3 0 7 0 8 0 
1227 0.8907150626182556 1.536035180091858 5.272356033325195 51 45 57 32.38 3 0 6 0 7 0 8 0 20 0 21 0 
1228 0.9684934616088867 1.544118881225586 5.240313529968262 58 48 66 26.9 3 0 6 0 7 0 8 0 20 0 21 0 
1229 0.6107179522514343 1.537858009338379 4.1683759689331055 202 200 178 79.08 3 0 6 0 7 0 8 0 
1230 7.995731353759766 0.6933659315109253 2.7421464920043945 9 9 16 2.9 3 0 10 0 11 0 
1231 0.996978223323822 1.5500012636184692 5.206347465515137 120 109 89 34.71 3 0 6 0 7 0 8 0 
1232 1.4369935989379883 1.1673015356063843 6.2695183753967285 55 41 40 10.06 3 0 6 0 7 0 8 0 20 0 21 0 
1233 0.13890095055103302 -0.058246489614248276 -0.048141710460186005 132 133 137 0.15 3 0 4 0 5 0 
1234 3.479092597961426 0.8837985992431641 2.691075086593628 29 24 28 0.67 3 0 6 0 9 0 16 0 
1235 5.354701042175293 1.349827766418457 0.5453481078147888 153 124 52 53.09 3 0 6 0 7 0 16 0 19 0 
1236 0.8153764009475708 1.5258355140686035 3.946723461151123 32 32 36 30.67 3 0 6 0 7 0 8 0 20 0 21 0 
1237 5.362238883972168 1.3605549335479736 0.5605028867721558 23 12 11 67.87 3 0 6 0 7 0 
1238 3.5330491065979004 1.0970458984375 0.14314326643943787 124 117 114 107.46 3 0 6 0 16 0 
1239 0.9060938358306885 1.547990322113037 5.230940341949463 42 39 42 26.29 3 0 7 0 8 0 20 0 21 0 
1240 0.09507113695144653 -0.09823039919137955 0.00975312851369381 68 86 118 14.21 3 0 6 0 16 0 
1241 0.13342642784118652 -0.12614378333091736 -0.04423588886857033 202 194 177 1.75 3 0 4 0 5 0 6 0 
1242 0.8033491373062134 1.5279121398925781 5.2110819816589355 233 233 233 48.8 3 0 7 0 8 0 
1243 0.8057596683502197 1.5359530448913574 3.939953088760376 32 31 35 44.12 3 0 6 0 7 0 8 0 
1244 0.1233917698264122 -0.12590579688549042 -0.035489462316036224 202 191 160 1.31 3 0 4 0 5 0 6 0 
1245 0.7842470407485962 1.1385071277618408 6.483308792114258 60 51 42 16.3 3 0 20 0 21 0 
1246 0.9825950860977173 1.1331759691238403 6.297309398651123 160 153 122 33.22 3 0 7 0 8 0 
1247 0.5855138301849365 1.5330499410629272 4.089285373687744 237 239 232 67.84 3 0 6 0 7 0 8 0 16 0 20 0 
1248 0.5922867655754089 1.1326091289520264 6.588698863983154 131 122 91 24.71 3 0 20 0 21 0 
1249 0.8645930290222168 1.5445256233215332 5.198326587677002 148 141 130 34.22 3 0 6 0 7 0 8 0 20 0 21 0 
1250 0.08397629857063293 -0.1265665590763092 0.012336685322225094 121 116 114 35.06 3 0 4 0 5 0 16 0 
1251 0.7356626987457275 1.1363098621368408 6.483017921447754 221 225 220 18.04 3 0 20 0 21 0 
1252 0.6532004475593567 1.124823808670044 6.467001914978027 120 108 88 21.31 3 0 20 0 21 0 
1253 1.5827910900115967 1.2048226594924927 6.203060150146484 38 33 28 7.27 3 0 6 0 7 0 8 0 20 0 21 0 
1254 0.08169784396886826 -0.09253396093845367 0.026985105127096176 176 184 178 22.15 3 0 4 0 6 0 7 0 8 0 9 0 16 0 
1255 5.633482456207275 1.4823721647262573 0.7188796997070312 67 62 60 32.16 3 0 6 0 16 0 19 0 
1256 2.3470165729522705 0.7242671251296997 2.5668511390686035 111 101 94 13.98 3 0 6 0 9 0 19 0 22 0 23 0 29 0 30 0 
1257 0.7680796384811401 1.1491965055465698 6.508715629577637 52 50 33 31.69 3 0 6 0 7 0 20 0 21 0 
1258 0.6803234815597534 1.5153464078903198 5.20391845703125 110 73 82 52.15 3 0 6 0 7 0 8 0 20 0 21 0 
1259 0.10685164481401443 -0.12524498999118805 -0.018186021596193314 177 172 148 2.18 3 0 4 0 5 0 6 0 
1260 1.756240963935852 1.236120343208313 6.166044235229492 124 111 89 1.79 3 0 20 0 21 0 
1261 0.6481576561927795 1.52096426486969 5.215555667877197 225 227 224 42.58 3 0 6 0 7 0 20 0 21 0 
1262 3.142076015472412 1.0827311277389526 0.4466876685619354 100 82 74 32.82 3 0 6 0 16 0 
1263 1.5823547840118408 1.2223933935165405 6.176458835601807 33 27 25 8.61 3 0 6 0 7 0 8 0 21 0 
1264 0.7650316953659058 1.5186160802841187 3.835355043411255 30 30 36 39.32 3 0 6 0 7 0 8 0 20 0 
1265 1.0719810724258423 1.1682875156402588 6.23554801940918 237 238 241 24.99 3 0 6 0 7 0 8 0 16 0 21 0 
1266 1.0955753326416016 1.177817463874817 6.239366054534912 248 251 252 16.34 3 0 6 0 16 0 20 0 21 0 
1267 0.5185442566871643 1.5109466314315796 5.191665172576904 222 222 214 43.02 3 0 16 0 20 0 21 0 
1268 0.09852153062820435 -0.12437871098518372 -0.007214196491986513 178 176 172 9.02 3 0 6 0 9 0 
1269 2.6150460243225098 0.9618273377418518 0.506469190120697 46 13 42 11.68 3 0 5 0 16 0 
1270 0.6985289454460144 1.5368009805679321 5.108160972595215 140 133 121 69.16 3 0 6 0 7 0 8 0 
1271 0.4802636504173279 1.5184991359710693 5.18565559387207 207 205 200 47.44 3 0 16 0 20 0 21 0 
1272 0.3761776387691498 1.1741909980773926 6.624551296234131 201 189 162 39.31 3 0 20 0 21 0 
1273 0.16696979105472565 -0.12527096271514893 -0.06658705323934555 219 211 201 0.41 3 0 4 0 5 0 
1274 6.1012372970581055 1.3540557622909546 2.792696475982666 182 182 185 0.56 3 0 6 0 7 0 
1275 5.39034366607666 1.440299391746521 0.5331748127937317 14 8 7 49.11 3 0 4 0 6 0 7 0 16 0 19 0 
1276 0.1504596471786499 -0.08130592852830887 -0.06275530904531479 163 168 171 4.15 3 0 5 0 6 0 16 0 17 0 
1277 5.316654205322266 1.446681261062622 0.6112657189369202 6 3 3 38.19 3 0 6 0 16 0 19 0 
1278 0.06434626877307892 -0.07732372730970383 0.04933709651231766 197 200 202 16.01 3 0 5 0 6 0 7 0 8 0 9 0 16 0 19 0 
1279 1.2152522802352905 1.2290065288543701 6.188011646270752 222 227 218 16.28 3 0 6 0 7 0 8 0 20 0 21 0 
1280 0.6690568923950195 1.5448402166366577 5.029524326324463 89 75 59 53.71 3 0 6 0 7 0 8 0 20 0 21 0 
1281 0.24037538468837738 0.013633509166538715 0.09343677014112473 19 29 42 0.3 3 0 4 0 5 0 
1282 6.029997825622559 1.3654855489730835 2.7883198261260986 34 45 62 0.59 3 0 6 0 9 0 
1283 6.059816837310791 1.3649286031723022 2.7324790954589844 31 37 49 0.6 3 0 5 0 6 0 9 0 16 0 
1284 3.830043315887451 1.111452341079712 0.6952871084213257 126 118 99 10.94 3 0 5 0 6 0 16 0 17 0 
1285 0.13552343845367432 -0.12296465784311295 -0.044104523956775665 104 72 63 0.68 3 0 4 0 5 0 
1286 0.10917659103870392 -0.12246467173099518 -0.02074153907597065 139 117 94 2.12 3 0 4 0 5 0 
1287 1.0022246837615967 1.2119944095611572 6.182897567749023 37 35 41 30.11 3 0 6 0 7 0 8 0 21 0 
1288 0.11292753368616104 -0.12235859036445618 -0.024798553436994553 166 164 156 12.85 3 0 5 0 16 0 
1289 2.7728469371795654 0.9269372820854187 0.9608878493309021 58 47 43 1.61 3 0 5 0 16 0 
1290 0.05537905916571617 -0.07548121362924576 0.06099313497543335 140 148 154 50.81 3 0 5 0 16 0 
1291 6.004833221435547 1.365633487701416 2.691596746444702 166 167 168 0.48 3 0 6 0 16 0 
1292 0.6807712316513062 1.5637564659118652 3.804220199584961 123 114 104 55.46 3 0 6 0 7 0 
1293 0.06088521331548691 -0.07405927777290344 0.05398010462522507 45 47 56 22.22 3 0 5 0 6 0 7 0 8 0 16 0 
1294 5.4326701164245605 1.4833438396453857 0.509059727191925 220 221 200 53.87 3 0 4 0 6 0 7 0 16 0 19 0 
1295 5.291675090789795 1.4592489004135132 0.5471296906471252 245 249 235 45.1 3 0 4 0 6 0 7 0 8 0 16 0 19 0 
1296 5.968930244445801 1.3699023723602295 2.6353671550750732 158 158 160 0.46 3 0 5 0 6 0 16 0 
1297 2.7118611335754395 0.9338420629501343 0.996305525302887 120 107 98 1.31 3 0 5 0 16 0 
1298 0.6984521150588989 1.2068029642105103 6.2363505363464355 136 131 110 19.4 3 0 20 0 21 0 
1299 0.09852166473865509 -0.12160660326480865 -0.005312899127602577 33 23 8 5.06 3 0 4 0 5 0 
1300 1.3048210144042969 1.2761775255203247 6.067221641540527 230 236 220 18.41 3 0 6 0 7 0 8 0 
1301 5.28588342666626 1.4736607074737549 0.5468522310256958 226 230 213 45.62 3 0 4 0 6 0 7 0 8 0 16 0 19 0 
1302 0.15479391813278198 -0.07380066066980362 -0.06832612305879593 191 201 198 4.97 3 0 5 0 6 0 17 0 18 0 
1303 0.5664134621620178 1.5602611303329468 5.013088703155518 148 138 129 74.76 3 0 6 0 7 0 16 0 
1304 2.267824649810791 0.7310754656791687 2.1760456562042236 135 129 115 10.3 3 0 7 0 8 0 10 0 
1305 1.2570273876190186 1.278887152671814 6.058450698852539 207 207 207 5.61 3 0 20 0 21 0 
1306 2.7463059425354004 1.0555919408798218 0.47891765832901 67 58 45 25.23 3 0 6 0 16 0 
1307 0.6817898154258728 1.5494968891143799 4.877309799194336 207 200 185 51.27 3 0 6 0 7 0 8 0 20 0 21 0 
1308 0.0535946860909462 -0.07015477865934372 0.06370197981595993 60 57 73 52.48 3 0 5 0 16 0 
1309 1.3136066198349 1.290602445602417 6.0380167961120605 24 12 17 12.91 3 0 6 0 7 0 8 0 20 0 21 0 
1310 0.6019553542137146 1.2480297088623047 6.358780860900879 219 231 223 24.8 3 0 20 0 21 0 
1311 5.3936872482299805 1.4850620031356812 0.42818716168403625 109 107 108 75.57 3 0 6 0 16 0 
1312 0.17044934630393982 -0.12233825773000717 -0.06711699068546295 88 75 62 0.17 3 0 4 0 5 0 
1313 5.256889820098877 1.4705686569213867 0.49231255054473877 69 57 54 51.61 3 0 6 0 16 0 19 0 
1314 0.056053925305604935 -0.06910069286823273 0.060079425573349 45 44 64 28.68 3 0 5 0 6 0 9 0 16 0 
1315 5.317131996154785 1.4674135446548462 0.385515958070755 58 37 60 82.12 3 0 6 0 16 0 
1316 6.000827312469482 1.3612009286880493 2.311147689819336 129 131 133 5.84 3 0 10 0 11 0 
1317 0.584784746170044 1.5560905933380127 4.909877777099609 91 65 56 72.9 3 0 6 0 7 0 
1318 0.09071510285139084 -0.12063207477331161 0.006734644062817097 135 117 101 11.16 3 0 4 0 5 0 6 0 7 0 
1319 0.060536473989486694 -0.0629219114780426 0.05416024476289749 44 45 51 28.53 3 0 5 0 6 0 16 0 
1320 5.297088623046875 1.4894511699676514 0.44337907433509827 24 15 15 59.25 3 0 6 0 16 0 19 0 
1321 5.826624870300293 1.4096850156784058 2.568087577819824 27 28 39 0.83 3 0 6 0 7 0 
1322 5.273167610168457 1.4808683395385742 0.4212421178817749 29 22 14 75.75 3 0 6 0 16 0 
1323 5.84052038192749 1.3586978912353516 2.241394281387329 203 203 209 3.56 3 0 5 0 10 0 11 0 16 0 
1324 5.248978137969971 1.4789177179336548 0.3995494544506073 100 68 76 79.59 3 0 6 0 16 0 
1325 1.018059253692627 1.287143588066101 6.006243705749512 232 230 239 27.96 3 0 6 0 7 0 8 0 16 0 21 0 
1326 1.1425167322158813 1.305993676185608 6.010753154754639 226 231 234 16.67 3 0 6 0 7 0 21 0 
1327 5.799168109893799 1.4166556596755981 2.5421175956726074 176 173 178 0.75 3 0 6 0 7 0 16 0 
1328 0.09750477224588394 -0.11919552832841873 -0.0015073970425873995 44 35 29 5.57 3 0 4 0 5 0 
1329 0.1423882395029068 -0.11908712238073349 -0.047899533063173294 90 44 60 2.54 3 0 4 0 6 0 
1330 5.77031135559082 1.3451117277145386 2.1298136711120605 58 55 59 1.38 3 0 6 0 16 0 
1331 0.44645336270332336 1.407159447669983 4.349098205566406 177 158 144 47.09 3 0 16 0 20 0 21 0 
1332 5.749197959899902 1.3657736778259277 2.1955409049987793 206 205 207 5.46 3 0 10 0 11 0 
1333 0.16112498939037323 -0.06428095698356628 -0.07661069184541702 87 90 92 0.36 3 0 4 0 5 0 
1334 6.114553928375244 1.4127684831619263 2.100940465927124 5 5 0 1.87 3 0 6 0 16 0 18 0 
1335 0.09351203590631485 -0.11836862564086914 0.0048423572443425655 158 157 157 11.17 3 0 4 0 5 0 6 0 7 0 9 0 
1336 0.1040678396821022 -0.11808060854673386 -0.010180196724832058 193 192 179 17.16 3 0 4 0 5 0 6 0 7 0 9 0 
1337 0.6080161929130554 1.524365782737732 4.599392890930176 190 177 145 58.83 3 0 6 0 7 0 8 0 20 0 21 0 
1338 0.5139909386634827 1.3146471977233887 6.324930191040039 221 229 225 30.77 3 0 20 0 21 0 
1339 0.5901050567626953 1.5116456747055054 4.545790195465088 122 89 67 67.86 3 0 6 0 7 0 
1340 1.2419511079788208 1.358131766319275 5.91444206237793 167 169 173 15.12 3 0 6 0 7 0 8 0 20 0 21 0 
1341 5.700197219848633 1.4016972780227661 2.22224760055542 15 17 65 6.11 3 0 10 0 11 0 
1342 0.9587803483009338 1.3276171684265137 5.90718412399292 43 41 48 31.36 3 0 6 0 7 0 8 0 20 0 
1343 0.7813195586204529 1.2826851606369019 5.813119411468506 163 150 138 28.78 3 0 6 0 7 0 20 0 21 0 
1344 1.4682505130767822 1.39360773563385 5.793060302734375 185 167 137 3.55 3 0 20 0 21 0 
1345 3.635225772857666 1.09819757938385 0.3692018687725067 136 127 117 49.15 3 0 6 0 16 0 
1346 12.283376693725586 1.3936275243759155 5.888684272766113 44 54 66 14.89 3 0 10 0 11 0 
1347 5.727927207946777 1.3919597864151 2.065824270248413 123 122 124 2.07 3 0 6 0 7 0 16 0 
1348 0.6905409097671509 1.285704255104065 5.855992317199707 33 32 35 19.51 3 0 20 0 21 0 
1349 0.07920181006193161 -0.10975122451782227 0.030178651213645935 8 9 10 31.48 3 0 5 0 16 0 
1350 0.07539305090904236 -0.1083267331123352 0.03538075461983681 60 60 63 33.19 3 0 4 0 5 0 7 0 8 0 16 0 
1351 0.490886390209198 1.3374181985855103 6.245830059051514 26 27 31 32.5 3 0 20 0 21 0 
1352 0.5413777828216553 1.33456552028656 6.18280553817749 76 56 50 28.99 3 0 20 0 21 0 
1353 5.954132556915283 1.4261118173599243 2.0220370292663574 167 164 164 2.35 3 0 6 0 16 0 
1354 0.07303573191165924 -0.10795164108276367 0.038534440100193024 16 19 25 8.03 3 0 6 0 9 0 
1355 0.09920786321163177 -0.10677706450223923 0.004457695875316858 63 69 77 16.38 3 0 4 0 6 0 7 0 16 0 
1356 1.2602558135986328 1.3802595138549805 5.787302017211914 226 238 222 14.09 3 0 6 0 7 0 8 0 20 0 21 0 
1357 2.0195083618164062 1.4677098989486694 5.54594087600708 179 139 125 5.04 3 0 7 0 8 0 19 0 
1358 0.08153790235519409 -0.1051950454711914 0.027333037927746773 56 58 67 21.92 3 0 4 0 5 0 6 0 7 0 8 0 9 0 16 0 
1359 1.196307897567749 1.3801287412643433 5.798406600952148 212 215 216 16.34 3 0 6 0 7 0 8 0 20 0 21 0 
1360 0.09971456229686737 -0.10449500381946564 0.0037623122334480286 66 71 86 15.1 3 0 4 0 9 0 16 0 
1361 1.2679917812347412 1.3881529569625854 5.775163173675537 104 98 72 13.88 3 0 6 0 7 0 8 0 20 0 21 0 
1362 0.07401898503303528 -0.1042046993970871 0.03714201971888542 67 71 79 25.33 3 0 4 0 5 0 6 0 7 0 8 0 9 0 16 0 
1363 5.784665584564209 1.4187055826187134 2.00675630569458 191 190 193 2.01 3 0 6 0 16 0 18 0 
1364 2.2428343296051025 0.8171998858451843 2.1099016666412354 163 36 54 4.57 3 0 6 0 7 0 8 0 9 0 10 0 19 0 20 0 21 0 22 0 29 0 
1365 5.72140645980835 1.4144470691680908 2.019153356552124 181 179 183 2.35 3 0 6 0 7 0 16 0 
1366 0.8379053473472595 1.5215699672698975 4.008124828338623 102 98 90 13.39 3 0 20 0 21 0 
1367 0.05682072043418884 -0.09933135658502579 0.0595405213534832 53 60 95 11.24 3 0 5 0 6 0 7 0 8 0 
1368 0.14046840369701385 -0.09713250398635864 -0.04970177635550499 200 207 212 2.29 3 0 5 0 16 0 
1369 5.746557235717773 1.423539638519287 1.9737333059310913 220 219 217 1.74 3 0 6 0 16 0 17 0 18 0 
1370 0.160957932472229 -0.0957421213388443 -0.07619262486696243 47 35 76 12.53 6 0 16 0 17 0 18 0 
1371 0.9814075231552124 1.3667941093444824 5.793275833129883 220 220 223 30.93 3 0 6 0 7 0 8 0 21 0 
1372 2.3807027339935303 0.8460410833358765 2.0430002212524414 52 42 58 6.67 7 0 8 0 9 0 10 0 23 0 29 0 30 0 
1373 3.1802988052368164 1.0857092142105103 0.48177370429039 59 38 39 29.1 3 0 6 0 16 0 
1374 2.18709397315979 0.8331614136695862 2.1434860229492188 154 28 40 9.21 3 0 6 0 8 0 9 0 10 0 19 0 20 0 21 0 22 0 23 0 29 0 30 0 
1375 1.2144542932510376 1.4075199365615845 5.734540939331055 244 245 246 21.8 3 0 6 0 7 0 8 0 
1376 3.0696754455566406 1.327528476715088 0.32321247458457947 154 154 131 80.47 3 0 6 0 16 0 
1377 2.161426544189453 0.8350865840911865 2.1601624488830566 188 159 167 16.46 0 0 3 0 6 0 8 0 9 0 10 0 19 0 20 0 21 0 22 0 23 0 29 0 30 0 
1378 0.15894785523414612 -0.09333779662847519 -0.0740586519241333 192 200 195 9.04 3 0 6 0 16 0 17 0 18 0 
1379 0.07839526236057281 -0.09183134883642197 0.031608931720256805 39 46 51 24.72 3 0 5 0 16 0 
1380 0.9382185339927673 1.3761065006256104 5.735749244689941 219 219 219 28.65 3 0 6 0 7 0 8 0 20 0 21 0 
1381 2.1444754600524902 0.8450013995170593 2.169581174850464 173 72 81 0.48 3 0 6 0 8 0 9 0 21 0 
1382 0.7754276990890503 1.5264030694961548 3.8822224140167236 105 100 93 47.26 3 0 6 0 7 0 8 0 
1383 0.7779424786567688 1.5141911506652832 3.8473167419433594 28 28 34 30.31 3 0 6 0 7 0 20 0 
1384 2.6419360637664795 0.5776549577713013 0.5343211889266968 116 102 87 4.8 3 0 5 0 16 0 
1385 2.1481034755706787 0.8504709601402283 2.1669976711273193 221 216 208 17.89 0 0 3 0 6 0 8 0 9 0 10 0 19 0 22 0 29 0 
1386 0.5141611099243164 1.3792517185211182 5.987739086151123 121 114 104 31.05 3 0 20 0 21 0 
1387 1.1170393228530884 1.426424503326416 5.729249954223633 219 223 227 7.88 3 0 20 0 21 0 
1388 0.07868087291717529 -0.08699650317430496 0.03090607561171055 205 207 210 22.59 3 0 5 0 16 0 
1389 0.15344563126564026 -0.08774030953645706 -0.06666284799575806 3 3 15 6.3 3 0 6 0 16 0 17 0 18 0 
1390 1.147886872291565 1.429385781288147 5.710690021514893 212 215 218 13.53 3 0 6 0 7 0 20 0 21 0 
1391 0.06522899866104126 -0.08623053878545761 0.04818300902843475 46 50 55 10.32 3 0 6 0 9 0 
1392 3.3360438346862793 1.0909837484359741 0.18942418694496155 61 52 42 89.94 3 0 6 0 16 0 
1393 0.4758683443069458 1.3966120481491089 5.989457607269287 30 22 20 34.13 3 0 20 0 21 0 
1394 0.08230316638946533 -0.0850675031542778 0.02616891823709011 183 190 185 22.75 3 0 4 0 5 0 16 0 
1395 1.0996098518371582 1.4376277923583984 5.695136070251465 222 221 230 25.68 3 0 7 0 8 0 
1396 0.4504794776439667 1.4136602878570557 6.045037269592285 25 25 27 36.55 3 0 20 0 21 0 
1397 0.8943735361099243 1.4020817279815674 5.655740737915039 205 207 205 34.07 3 0 6 0 7 0 
1398 2.3885889053344727 0.8954800367355347 2.042468547821045 220 210 210 4.99 3 0 6 0 7 0 9 0 10 0 19 0 22 0 23 0 29 0 30 0 
1399 0.3447161614894867 1.4211686849594116 6.131097316741943 221 222 220 46.19 3 0 20 0 21 0 
1400 1.1928242444992065 1.4541432857513428 5.631251335144043 214 218 220 16.48 3 0 6 0 7 0 8 0 20 0 21 0 
1401 0.4303542375564575 1.4231606721878052 6.058416366577148 34 35 36 38.4 3 0 20 0 21 0 
1402 3.159200429916382 1.07965886592865 0.27574336528778076 54 47 40 63.28 3 0 6 0 16 0 
1403 0.3551351726055145 1.4279448986053467 6.116305351257324 42 16 82 45.33 3 0 20 0 21 0 
1404 0.4218921661376953 1.4299242496490479 6.073004245758057 209 217 211 39.27 3 0 20 0 21 0 
1405 2.3358707427978516 0.9011842608451843 2.071085214614868 48 47 50 0.23 3 0 6 0 7 0 19 0 
1406 0.30842193961143494 1.4155681133270264 6.070844650268555 30 29 31 49.75 3 0 20 0 21 0 
1407 1.1447805166244507 1.4576588869094849 5.623627185821533 213 218 218 18.39 3 0 6 0 7 0 8 0 20 0 21 0 
1408 0.3689982295036316 1.4354746341705322 6.109593868255615 39 5 71 44.18 3 0 20 0 21 0 
1409 1.0940147638320923 1.4493211507797241 5.62372350692749 221 221 225 20.53 3 0 6 0 7 0 8 0 20 0 21 0 
1410 1.2035819292068481 1.4664150476455688 5.6033244132995605 225 227 230 16.09 3 0 6 0 7 0 8 0 20 0 21 0 
1411 3.3994288444519043 1.122390627861023 0.153819739818573 149 148 150 106.83 3 0 6 0 16 0 
1412 0.05181298777461052 -0.07914247363805771 0.06521625071763992 48 39 57 60.12 3 0 5 0 16 0 
1413 1.1567754745483398 1.4564340114593506 5.594571590423584 231 237 233 24.64 3 0 6 0 7 0 8 0 
1414 1.178209662437439 1.4612843990325928 5.603713512420654 223 222 231 16.99 3 0 6 0 7 0 8 0 20 0 21 0 
1415 2.3885252475738525 0.9070709943771362 2.0399932861328125 76 70 70 8.27 3 0 6 0 9 0 10 0 30 0 
1416 1.1245274543762207 1.457554817199707 5.61428689956665 248 253 250 22.66 3 0 6 0 7 0 8 0 21 0 
1417 3.1597845554351807 1.3643959760665894 0.1594521403312683 202 192 174 119.1 3 0 5 0 6 0 16 0 
1418 0.9803125858306885 1.4405306577682495 5.643423080444336 70 49 73 36.87 3 0 6 0 7 0 8 0 
1419 1.1475359201431274 1.460966944694519 5.600152015686035 25 14 51 21.46 3 0 6 0 7 0 8 0 21 0 
1420 1.4032055139541626 1.488594889640808 5.506363868713379 227 218 194 3.98 3 0 20 0 21 0 
1421 0.05990724638104439 -0.07826344668865204 0.05463709682226181 215 216 216 43.53 3 0 5 0 16 0 
1422 2.3662784099578857 0.9082801342010498 2.048496723175049 221 210 216 3.36 2 0 3 0 6 0 7 0 9 0 22 0 23 0 29 0 30 0 
1423 0.06435129046440125 -0.07826191931962967 0.04958362877368927 43 45 52 36.02 3 0 6 0 16 0 
1424 1.2883026599884033 1.472438931465149 5.487184524536133 235 241 233 12.78 3 0 6 0 7 0 8 0 20 0 21 0 
1425 0.5704149603843689 1.381402850151062 5.616123676300049 222 223 231 26.6 3 0 20 0 21 0 
1426 0.2864699363708496 1.4348878860473633 6.04105281829834 27 26 29 52.74 3 0 20 0 21 0 
1427 0.11134622991085052 -0.07679753750562668 -0.012442936189472675 79 85 129 1.67 3 0 4 0 5 0 
1428 0.8476870059967041 1.4213478565216064 5.559706211090088 242 244 246 37.71 3 0 6 0 7 0 
1429 1.071845293045044 1.4727340936660767 5.601243495941162 236 238 235 23.72 3 0 6 0 7 0 
1430 1.2231539487838745 1.4813870191574097 5.516373157501221 205 205 210 15.14 3 0 6 0 7 0 8 0 20 0 21 0 
1431 0.4504971206188202 1.3873817920684814 5.656919479370117 172 166 153 35.33 3 0 20 0 21 0 
1432 0.42080992460250854 1.4117909669876099 5.775522232055664 173 167 154 38.57 3 0 20 0 21 0 
1433 0.858147919178009 1.4349772930145264 5.549611568450928 230 232 233 28.79 3 0 6 0 7 0 20 0 
1434 3.128319263458252 1.3272784948349 7.156466960906982 148 120 96 5.2 3 0 7 0 8 0 18 0 20 0 
1435 2.805846929550171 1.067087173461914 0.4396490752696991 158 153 136 30.79 3 0 6 0 16 0 
1436 2.8672304153442383 1.0791593790054321 0.4160226583480835 200 201 183 35.11 3 0 6 0 16 0 
1437 0.5484753251075745 1.3929088115692139 5.572839260101318 83 62 60 28.12 3 0 20 0 21 0 
1438 0.6424627304077148 1.3925855159759521 5.5101518630981445 154 160 170 58.87 3 0 6 0 7 0 
1439 1.2072409391403198 1.4949097633361816 5.50097131729126 37 39 38 15.8 3 0 6 0 7 0 8 0 20 0 21 0 
1440 0.45115870237350464 1.386432409286499 5.610135078430176 103 91 68 47.12 3 0 16 0 20 0 21 0 
1441 1.105884075164795 1.4917532205581665 5.542712211608887 228 230 227 20.17 3 0 6 0 7 0 8 0 20 0 21 0 
1442 0.12264817953109741 -0.0732499435544014 -0.02708815410733223 207 211 205 2.28 3 0 4 0 5 0 16 0 
1443 2.3382890224456787 0.943184494972229 2.0668327808380127 200 189 184 6.63 3 0 6 0 8 0 9 0 10 0 23 0 29 0 
1444 0.9789783954620361 1.476393699645996 5.556807994842529 217 218 218 26.8 3 0 6 0 7 0 8 0 20 0 21 0 
1445 1.1565154790878296 1.4947227239608765 5.493910789489746 210 210 215 20.91 3 0 6 0 7 0 8 0 21 0 
1446 1.2795941829681396 1.5080058574676514 5.438361644744873 235 240 242 5.36 3 0 20 0 21 0 
1447 0.08994314819574356 -0.07122846692800522 0.01538795605301857 198 206 207 8.86 3 0 4 0 5 0 
1448 3.4632327556610107 1.2118092775344849 0.12036769837141037 201 202 200 103.59 3 0 5 0 6 0 16 0 
1449 1.3358582258224487 1.516287922859192 5.397199630737305 169 177 181 16.06 3 0 6 0 7 0 8 0 
1450 2.309885025024414 0.94481360912323 2.072115421295166 200 193 157 7.4 3 0 6 0 7 0 8 0 9 0 10 0 22 0 23 0 29 0 30 0 
1451 3.428837299346924 1.219114899635315 0.14631837606430054 179 177 186 124.37 3 0 6 0 16 0 
1452 0.05470573529601097 -0.06778652966022491 0.06175555661320686 34 37 52 20.24 6 0 7 0 9 0 16 0 19 0 
1453 4.149855136871338 1.1182007789611816 1.2148767709732056 167 157 147 3.94 3 0 6 0 16 0 
1454 1.4230400323867798 1.5378113985061646 5.369843482971191 152 139 124 9.67 3 0 7 0 8 0 21 0 
1455 2.3139660358428955 0.9550253748893738 2.0748109817504883 34 36 40 9.36 3 0 6 0 9 0 10 0 22 0 23 0 29 0 30 0 
